ply
            format ascii 1.0
            element vertex 5222
            property float x
            property float y
            property float z
            property uchar blue
            property uchar green
            property uchar red
            end_header
1901.282120 -420.876789 3716.622925 19 26 42
1884.159851 7.236381 3664.859390 18 32 103
1905.730629 9.994131 3654.391861 43 55 118
1944.353676 742.919064 3719.566727 120 124 124
1960.524368 -423.897696 3712.031174 0 30 50
1983.599281 742.847872 3727.501297 19 27 54
1984.900665 -426.094341 3710.694504 15 42 46
1997.518158 403.224993 3710.949707 20 31 130
2044.129372 296.771073 3732.871246 138 143 130
2045.646858 745.815563 3701.396561 126 129 132
2081.765366 239.889550 3765.147018 33 29 29
2086.730576 387.143803 3750.010681 129 139 222
2102.283669 250.397944 3729.252625 42 37 32
2106.109238 270.551157 3736.685944 49 46 43
2116.573334 213.076544 3741.337585 48 51 43
2116.573334 213.076544 3741.337585 48 51 43
2122.065544 205.128717 3739.677048 100 100 89
2154.722977 355.129576 3806.394577 19 22 14
2138.300514 460.355616 3766.391373 59 67 113
2139.580917 -787.259722 3768.899918 62 62 56
2133.072090 244.303870 3731.796646 102 99 89
2153.614426 553.569841 3743.216324 73 83 137
2181.511879 256.575751 3782.191467 131 126 109
2245.234108 -308.619666 3742.605591 93 87 93
2262.390709 -319.837141 3744.625854 116 148 166
2297.911453 -315.564537 3803.810501 37 45 65
2283.554459 -48.566389 3746.813965 42 43 35
2310.680008 -316.255903 3796.785736 123 142 156
-80.849624 653.676271 3508.287811 49 56 67
-104.536712 214.266849 3663.526154 140 144 149
-84.837723 221.641231 3564.648056 18 7 19
-68.220669 713.718510 3487.398148 148 153 162
-68.220669 713.718510 3487.398148 148 153 162
-65.698928 736.128235 3483.203888 150 155 164
-62.575620 768.016148 3468.978882 134 149 163
-66.855299 242.356467 3503.014755 38 43 54
-72.439492 -934.224129 3560.207367 223 214 209
-59.265172 -944.485569 3560.523224 194 185 187
-54.095972 -691.655874 3556.266022 123 108 114
-45.608464 675.465775 3510.685730 17 29 39
-62.870699 392.920423 3649.477768 58 50 61
-39.394915 661.433458 3497.893906 85 157 176
-53.042525 350.762677 3623.472595 65 55 65
-39.076954 -486.921072 3548.898315 95 85 95
-28.094274 632.266712 3490.520096 23 149 175
-36.647570 -882.483101 3568.117523 90 82 87
-35.308906 -931.968117 3561.148834 131 117 120
-27.438077 -890.159225 3566.090775 43 50 54
-22.597210 -3.405552 3561.214066 29 31 50
-24.234666 -854.413223 3589.821243 116 108 113
-18.945561 -641.345692 3555.249786 51 55 101
-11.153915 694.148111 3512.472916 92 99 108
-15.777524 309.726357 3543.175125 155 150 159
-20.698585 -663.791847 3570.510101 63 55 66
-20.056184 31.083465 3582.412720 28 22 33
-14.925751 364.055300 3570.294952 66 64 86
-7.607958 359.330821 3538.582230 64 60 89
-9.959339 -900.002003 3565.149307 80 159 177
-2.494404 260.602260 3556.737518 39 44 53
-0.635391 259.303832 3546.135712 39 44 53
-3.501698 -313.780379 3563.278580 52 109 165
-5.373945 -347.093916 3579.071426 4 5 33
1.030285 -850.975990 3532.940674 66 115 115
7.623762 270.382619 3552.890015 2 31 48
8.576933 -665.239954 3547.537231 191 189 189
9.477002 -339.792514 3584.023285 19 23 62
24.408349 647.993612 3502.700043 13 29 53
11.823498 -670.526457 3586.253357 175 175 175
42.975155 702.278280 3412.985229 17 27 63
16.228110 -688.486242 3612.998962 42 32 37
27.295074 -328.777814 3580.401230 161 155 184
28.157714 -341.464114 3612.730789 133 138 168
34.539273 -827.063465 3561.962128 94 91 150
36.764288 -898.416328 3568.210220 0 30 46
36.580974 -368.422055 3577.679062 96 93 120
38.428831 -683.995962 3579.771423 24 18 16
38.298273 -318.271565 3584.675598 63 75 109
51.951087 -872.579193 3512.904358 23 36 49
61.187929 614.267254 3524.086761 192 152 164
61.187929 614.267254 3524.086761 192 152 164
52.158415 -606.976604 3588.554001 185 181 192
67.808408 489.036322 3548.796844 4 1 5
76.036119 523.299217 3542.137146 172 176 176
74.779260 -339.468217 3593.352127 87 112 141
74.779260 -339.468217 3593.352127 87 112 141
75.651741 -350.626564 3596.068573 153 143 161
84.103388 489.213562 3548.392868 23 18 22
88.085955 506.075859 3543.790817 32 29 33
81.790823 -591.194057 3595.075989 188 191 199
98.133713 524.235296 3549.770737 167 175 177
98.819870 534.594679 3552.687073 167 172 175
120.126629 -794.514322 3529.228592 27 27 27
143.278134 543.523359 3561.593628 172 174 179
149.370110 404.996586 3575.781250 159 163 163
160.402381 507.820797 3554.625702 38 31 40
181.087422 511.346245 3563.115311 36 31 35
183.014405 455.758381 3574.618530 164 165 173
183.417821 446.295309 3579.502869 160 157 161
186.325336 474.117374 3579.307175 35 33 34
190.576136 325.282598 3592.372513 181 180 213
192.331755 408.171797 3583.298492 33 22 29
194.842505 445.955420 3576.231384 178 172 178
194.842505 445.955420 3576.231384 178 172 178
196.052563 455.901289 3575.946426 171 172 180
160.060596 344.282937 4089.350891 45 36 38
199.908757 685.063028 3595.796204 65 68 60
190.644252 315.107942 3777.139282 177 176 223
206.468463 406.596088 3583.435822 180 176 182
212.367797 473.213434 3574.073792 39 31 36
213.809013 451.119995 3580.650330 173 172 176
215.077138 445.795107 3569.137192 174 173 177
210.540938 335.503793 3662.514496 45 36 38
218.060327 531.009007 3569.694519 135 142 146
216.103721 279.686522 3598.831177 77 67 97
222.114325 307.754230 3595.997238 61 50 128
222.114325 307.754230 3595.997238 61 50 128
226.012635 491.564608 3579.179001 141 149 156
226.012635 491.564608 3579.179001 141 149 156
225.923920 452.453232 3588.874435 28 17 29
227.253866 275.205350 3600.754547 179 183 202
226.491976 -921.074581 3605.609894 124 114 119
234.120178 300.370669 3593.614197 179 184 207
234.120178 300.370669 3593.614197 179 184 207
235.902166 456.547689 3590.447998 169 163 169
236.197758 437.776709 3589.710617 158 148 158
239.773130 471.927595 3573.478317 41 32 34
245.074034 533.458090 3577.991104 179 179 180
251.505899 669.246292 3555.818558 49 78 83
247.648144 -870.749283 3582.658768 29 27 21
254.029107 652.900219 3547.554016 70 78 85
251.818299 431.238461 3589.131165 42 32 37
253.334737 446.280861 3584.758759 162 157 161
254.333138 489.926434 3592.059326 157 161 161
261.629319 619.519567 3555.161667 94 89 93
265.559220 447.966385 3596.435928 166 161 165
265.889788 518.882608 3599.570084 37 30 32
271.708965 473.801756 3587.649918 45 33 43
275.509667 656.196737 3571.192932 189 192 200
276.261950 -857.572174 3615.347290 131 133 152
281.946874 648.791838 3571.033096 96 94 95
281.315565 447.746134 3600.599670 169 161 159
282.052302 243.850064 3626.681900 107 106 110
285.290670 466.509533 3590.942764 169 165 171
289.241910 454.412270 3591.402817 191 188 192
291.329288 488.238382 3589.471436 181 178 182
294.459939 244.409728 3611.440659 178 183 194
291.223788 -404.191875 3665.673828 0 4 64
300.390005 651.509953 3559.335709 34 29 33
300.138211 330.280089 3617.272186 43 41 63
304.007673 229.805017 3590.398788 28 26 20
306.583452 -878.113747 3577.888107 127 118 139
312.814760 -901.591778 3617.888641 93 88 92
312.814760 -901.591778 3617.888641 93 88 92
316.331530 -858.760643 3621.902466 64 55 83
316.331530 -858.760643 3621.902466 64 55 83
316.331530 -858.760643 3621.902466 64 55 83
322.870898 -851.365089 3627.258682 133 130 150
326.413846 234.051609 3630.357742 139 138 135
327.472615 -383.485150 3656.037140 100 138 171
328.776050 -890.989494 3609.727478 187 185 191
342.756224 692.316246 3559.986115 185 183 189
343.987656 385.983586 3591.429520 44 35 37
344.281459 468.316412 3602.333450 38 31 32
343.882799 257.144880 3613.922501 52 45 47
346.269345 617.871475 3608.143997 26 27 19
348.118615 514.407921 3579.770660 46 35 36
348.840714 -896.856022 3649.151611 70 55 61
358.612251 448.748636 3601.222992 164 157 159
361.526799 534.169436 3593.377686 71 70 74
361.526799 534.169436 3593.377686 71 70 74
358.945370 -877.742290 3654.841614 28 23 27
367.638540 530.005455 3599.337769 179 171 176
367.368174 434.971666 3622.735596 39 32 34
368.071508 363.229227 3606.035233 38 29 30
368.071508 363.229227 3606.035233 38 29 30
372.028565 448.033333 3600.772476 171 163 168
376.875949 373.102498 3599.258423 28 18 16
375.984502 -41.832480 3636.290359 155 181 182
386.441946 418.923283 3610.835266 184 182 183
389.537930 449.669504 3606.055069 171 169 169
390.672660 365.819764 3582.815552 23 23 61
390.454316 224.212360 3619.232559 27 23 23
405.222750 431.236029 3627.323914 178 172 178
410.843897 -270.056915 3643.817139 75 163 209
416.752291 409.203577 3614.718628 180 180 180
419.288635 498.974371 3602.769852 167 165 171
418.600225 1.034069 3641.543961 0 46 78
421.761179 388.155389 3616.733932 37 31 29
422.479391 332.799125 3643.969727 49 54 91
424.348259 261.258221 3623.849487 163 158 203
426.410627 368.254042 3621.939850 37 33 34
433.535576 314.615917 3624.981308 40 37 46
434.234571 302.349091 3611.676788 33 26 28
435.134745 417.479944 3610.475159 177 173 174
435.134745 417.479944 3610.475159 177 173 174
439.852285 -158.816552 3656.686783 50 130 205
441.135645 -7.870410 3641.336823 2 15 75
444.429111 452.261496 3613.090515 55 57 62
445.779276 450.120020 3608.076859 50 48 54
445.843697 427.203751 3605.739594 48 32 40
446.806717 302.299404 3642.850494 42 32 30
447.219658 80.740994 3617.550659 20 25 28
450.398302 496.882200 3603.968811 25 21 27
452.375412 396.011925 3628.376389 42 35 36
456.917000 342.031097 3618.449020 52 46 142
456.917000 342.031097 3618.449020 52 46 142
458.369160 434.182835 3615.965652 46 32 42
459.260511 530.851030 3604.047775 174 171 175
466.907549 496.958971 3603.538513 77 80 83
466.702652 -431.333160 3673.269653 59 60 109
470.805216 -156.409967 3647.000885 83 177 224
478.331184 361.933780 3576.531219 48 51 134
478.731823 240.967464 3625.223541 50 54 107
478.336954 -148.904347 3677.236176 0 90 170
479.110003 -169.631839 3651.363373 0 34 120
484.721327 424.284029 3623.886108 38 31 32
487.356806 441.567421 3612.753296 178 174 175
491.736507 494.871902 3608.677292 173 169 170
491.736507 494.871902 3608.677292 173 169 170
491.736507 494.871902 3608.677292 173 169 170
494.408512 452.948475 3624.676514 24 19 28
494.481134 296.825123 3627.300644 41 29 39
496.930456 705.110264 3564.088821 102 105 113
497.365284 263.625908 3627.907944 176 177 210
498.005581 -171.502995 3649.919128 0 1 71
499.498653 -3.743026 3648.355484 34 29 45
504.883480 -154.599535 3641.609955 100 175 225
508.944130 430.079412 3610.452271 43 27 30
509.431505 -396.236444 3670.460892 23 30 34
511.959219 451.397991 3618.096161 49 51 56
514.691305 290.454602 3629.994202 175 173 197
517.294788 273.014235 3646.537399 16 11 130
518.201017 737.237692 3592.381287 34 32 49
521.865082 431.957006 3636.204529 45 36 38
521.865082 431.957006 3636.204529 45 36 38
522.483349 320.361423 3677.557755 37 28 29
522.316217 -462.545681 3639.879608 77 139 180
524.919605 51.931661 3659.761429 142 138 174
526.662350 -158.999872 3659.302139 38 48 130
532.715940 9.984294 3650.563812 207 180 222
532.715940 9.984294 3650.563812 207 180 222
538.999605 293.994093 3632.779694 187 185 207
538.925314 -131.275749 3673.770523 46 48 135
538.586903 -293.696046 3653.950500 27 160 192
548.582745 50.239533 3645.563126 115 110 126
551.112843 255.790639 3593.741226 135 131 131
553.868103 57.763356 3658.429718 162 158 182
559.291792 -240.111780 3686.076355 35 157 215
562.114716 456.379747 3625.038147 69 69 70
562.848663 458.992052 3633.283997 69 69 70
563.798141 -286.481357 3672.444153 0 107 172
565.859032 541.475725 3615.305328 177 174 178
568.417025 451.901913 3631.168365 170 166 166
568.352413 -417.722034 3687.899399 34 171 214
570.057726 -227.908397 3685.036469 0 92 170
570.748281 488.072205 3618.715668 35 31 31
570.407104 -226.999593 3659.645081 0 92 170
575.054741 -243.293095 3669.347763 16 155 193
577.188444 276.931524 3637.568665 49 39 101
578.975058 48.814914 3655.598068 180 176 182
584.507561 420.552015 3627.959061 172 168 169
585.661173 -174.376154 3693.199158 0 32 110
587.588978 282.352090 3638.222504 194 190 203
591.669273 -180.169773 3676.919174 65 160 218
591.703224 266.057324 3632.555389 24 17 18
592.983675 459.697580 3630.380630 93 99 99
594.275618 496.646023 3626.070404 81 80 84
597.396231 705.098200 3601.728821 13 22 87
599.570513 488.904905 3622.877884 180 180 180
599.570513 488.904905 3622.877884 180 180 180
600.947475 481.534624 3630.038834 145 142 151
602.542448 306.051517 3650.847626 103 99 142
601.950598 539.410353 3614.746094 82 77 86
604.111671 -84.881824 3677.177429 43 55 104
607.401752 422.629976 3645.836258 180 176 176
607.640219 819.009686 3600.281143 118 135 156
613.585329 329.661846 3674.765778 54 49 115
614.481020 477.143717 3626.291275 43 35 40
616.061449 318.394256 3648.635864 51 47 110
618.681240 -265.584731 3663.269043 20 26 45
619.895840 422.610044 3640.182114 184 180 180
622.914410 -129.645479 3660.150909 90 152 226
624.091148 497.263432 3626.180267 131 131 131
624.091148 497.263432 3626.180267 131 131 131
624.091148 497.263432 3626.180267 131 131 131
626.553917 503.876638 3621.104050 169 168 172
644.846249 -250.242567 3736.602783 12 26 55
649.940348 -201.245070 3658.747864 0 39 109
652.436972 -210.797715 3685.479355 44 160 208
665.129566 483.333540 3630.663681 176 169 178
666.348410 511.879730 3623.472595 21 16 20
682.128429 -365.414286 3665.340042 32 38 86
682.805395 502.940273 3634.241486 180 174 185
692.281199 538.286734 3624.938583 81 79 79
700.539207 516.958809 3624.152374 42 36 42
716.772461 544.896889 3634.214020 156 158 163
716.772461 544.896889 3634.214020 156 158 163
716.572762 528.243828 3630.557632 168 164 164
716.572762 528.243828 3630.557632 168 164 164
721.928883 198.253202 3606.589508 26 26 20
755.851698 -261.964655 3701.365280 0 89 163
754.432869 -54.814577 3650.179672 110 189 220
763.309574 -138.019574 3713.372803 0 14 47
765.558338 -31.532982 3662.724304 101 195 229
768.576765 -100.571358 3686.714935 104 188 218
768.537426 467.425013 3642.652512 209 186 161
771.601486 -258.574533 3683.795166 89 175 212
776.887655 479.828453 3633.507156 115 79 54
772.288418 762.852430 3506.183243 73 93 118
785.132313 -846.868229 3672.322464 41 102 159
811.367893 -919.276905 3659.689713 148 151 167
811.859894 -843.474197 3662.218857 53 99 154
816.711903 -851.074600 3664.716339 25 41 85
823.657131 -845.522881 3679.929733 16 24 60
825.732327 -881.027699 3678.683853 131 136 166
824.780750 716.906881 3592.840195 93 86 102
841.747379 277.574611 3723.679733 50 38 21
849.911022 -872.956467 3680.725861 82 138 178
849.465847 729.833031 3555.599594 187 185 191
869.521332 -564.270401 3772.396088 30 30 30
786.786318 -134.238577 2958.488464 0 15 40
872.225189 -384.138799 3768.474579 0 117 172
901.520443 83.967692 3982.399750 33 57 131
866.350555 405.293322 3641.598892 155 139 113
866.350555 405.293322 3641.598892 155 139 113
878.548717 -462.292862 3696.915817 74 144 202
877.408981 75.940031 3638.983154 33 57 131
883.087444 -314.770722 3687.337494 0 34 106
894.867325 -422.477484 3699.033356 73 168 206
854.168987 67.437690 3308.584213 33 57 131
895.867062 -377.991080 3676.055908 0 67 145
901.283836 -297.102070 3698.184586 126 184 212
901.549053 -430.089331 3701.388550 0 29 114
900.315285 -413.275003 3670.388412 0 34 101
919.247150 -31.735367 3732.472229 20 25 28
919.247150 -31.735367 3732.472229 20 25 28
931.393147 287.569833 3665.272141 18 39 41
954.298973 298.892760 3671.700287 0 161 193
957.546997 -422.765446 3683.115768 37 164 213
956.381798 786.570024 3615.604401 143 156 169
965.703964 348.824334 3674.645233 0 38 99
965.703964 348.824334 3674.645233 0 38 99
981.758404 302.150941 3687.984467 0 14 75
986.575127 -107.593334 3705.027390 152 193 208
1005.593872 -362.238216 3735.033417 0 97 175
1014.893723 -140.772581 3723.321915 25 26 23
1030.128288 146.432316 3713.762283 17 17 27
1027.663040 -92.203015 3697.179794 23 30 41
1029.915905 105.643332 3685.628128 179 171 205
1040.178394 686.043644 3624.060440 182 177 167
1053.794670 -121.505690 3686.420822 106 173 198
1070.525646 8.944330 3711.891937 0 160 194
1072.594070 103.549898 3657.450867 23 26 29
1074.585438 274.392223 3643.042374 50 31 34
1086.981297 135.215199 3696.818161 130 129 149
1089.186478 23.214182 3685.724640 0 69 165
1089.311218 280.866814 3656.641006 91 168 191
1101.463699 -307.410502 3709.437180 0 35 113
1100.519466 -838.849449 3701.246643 144 132 128
1106.054783 -44.950753 3713.402557 0 102 146
1107.241058 10.931689 3700.394058 0 35 85
1107.241058 10.931689 3700.394058 0 35 85
1107.024193 -312.899256 3705.162430 92 167 210
1107.266426 -44.922569 3689.049149 0 37 92
1110.872746 -79.790455 3709.539032 0 23 91
1110.872746 -79.790455 3709.539032 0 23 91
1098.055077 604.778242 3603.989410 74 62 67
1103.603840 124.970055 3639.479065 39 39 33
1124.382401 -61.305547 3704.607773 0 27 117
1127.914143 -506.173277 3701.606369 77 164 199
1126.575851 -503.899240 3691.645432 77 164 199
1128.851414 363.972545 3662.496567 62 173 204
1117.534733 716.056919 3586.052704 99 96 45
1126.814079 303.388619 3632.685089 67 185 215
1140.921116 -359.775686 3707.198715 39 105 189
1138.483047 -524.340057 3624.825287 65 164 203
1151.875114 -457.547331 3695.819473 112 172 193
1149.900150 503.449202 3657.925797 50 66 49
1164.422703 -7.730703 3673.315811 0 26 101
1165.315819 -20.205729 3674.419785 14 165 201
1157.575417 -916.626835 3617.418289 89 80 87
1154.138565 506.846714 3489.737320 124 115 122
1189.263439 -298.228192 3641.307449 0 17 119
1196.056557 277.746558 3660.290909 39 46 42
1205.143356 -316.388369 3709.991074 15 137 201
1205.533791 0.524161 3703.983688 10 22 64
1202.146244 368.294120 3644.824600 153 133 128
1214.065742 -98.056185 3702.571487 18 24 56
1204.090214 610.610533 3635.390854 118 181 226
1204.090214 610.610533 3635.390854 118 181 226
1209.034157 -942.969227 3664.448166 119 108 109
1225.640392 153.978181 3675.496292 36 56 100
1223.438835 -887.572861 3671.898270 113 99 109
1235.047340 34.030575 3704.689789 65 145 220
1216.007233 -308.729601 3599.327469 17 109 175
1232.341766 -859.908009 3683.002472 92 90 84
1225.323486 -934.351254 3639.855194 109 95 97
1233.082771 372.455788 3654.503632 56 50 48
1136.773014 -373.005486 3054.570007 68 153 188
1262.449932 -325.503087 3704.118347 68 153 188
1259.778881 -362.849283 3689.579391 26 32 31
1253.712654 -930.915737 3667.142868 95 84 91
1259.234238 -27.869764 3673.435593 0 74 183
1272.905350 -485.325384 3693.354416 25 25 25
1267.479420 557.956409 3649.670410 135 171 191
1291.096878 17.402832 3698.556900 0 21 98
1291.096878 17.402832 3698.556900 0 21 98
1296.058655 -338.041902 3725.092697 20 39 48
1291.264343 -42.403224 3697.893524 0 19 101
1286.506653 482.547188 3667.192459 89 91 80
1288.143826 349.648070 3670.582962 0 38 85
1292.427731 2.507824 3688.211441 31 141 215
1305.399132 -60.618180 3692.021561 3 22 111
1305.399132 -60.618180 3692.021561 3 22 111
1334.152031 80.188763 3682.690811 33 44 130
1349.663639 496.204710 3648.477936 209 194 152
1349.663639 496.204710 3648.477936 209 194 152
1360.352612 -494.579554 3698.418427 1 46 92
1359.097672 -480.622435 3689.560318 70 167 200
1373.852921 -59.031105 3679.145813 28 145 211
1371.719551 -488.876534 3676.761246 24 149 184
1367.363644 -59.150302 3647.698975 28 145 211
1386.140537 -394.909739 3722.297668 0 65 108
1380.118465 128.096771 3680.991364 177 173 179
1378.634071 -376.752257 3678.443146 0 37 110
1380.167389 -479.556847 3683.063126 61 168 211
1380.167389 -479.556847 3683.063126 61 168 211
1383.576965 6.383750 3689.039993 17 28 54
1402.716255 44.643220 3714.465714 53 103 168
1411.138058 -395.485330 3683.787918 85 155 213
1411.138058 -395.485330 3683.787918 85 155 213
1410.040665 -846.923161 3669.059753 90 102 110
1423.823071 -825.956154 3637.279510 49 54 77
1433.067799 733.961630 3621.529770 142 144 188
1433.067799 733.961630 3621.529770 142 144 188
1439.718533 41.502094 3647.232056 11 109 197
1429.344082 629.241228 3590.010071 74 55 73
1447.805214 -272.333694 3672.061920 0 31 100
1456.490898 -278.853297 3684.323120 64 176 216
1461.463356 -117.751384 3684.479523 36 75 177
1454.938126 840.268898 3605.928421 152 164 172
1464.941978 687.483358 3604.719925 90 63 64
1486.515713 92.898238 3670.475388 20 24 23
1495.091152 545.148039 3626.631165 144 172 173
1514.262486 -20.430586 3670.221710 66 162 216
1516.590214 -292.919040 3666.946793 19 164 191
1533.825016 -503.803158 3662.658691 52 153 199
1547.908401 -350.460577 3691.435242 0 90 178
1549.842739 -398.667479 3695.598602 0 85 179
1542.916775 -137.880325 3662.995529 107 131 185
1541.555119 81.803471 3652.817535 28 52 108
1551.520824 -287.417912 3670.226669 52 169 208
1555.078793 -444.023323 3673.838043 1 161 189
1558.540344 50.885928 3659.365845 0 153 190
1575.718880 -419.364071 3718.805695 0 99 178
1560.496330 -237.059498 3645.147705 0 29 90
1614.089394 -526.382065 3754.159164 15 87 165
1587.471771 -248.528004 3656.423187 0 37 78
1587.471771 -248.528004 3656.423187 0 37 78
1593.141747 -11.028574 3652.906036 21 28 37
1587.666321 -113.953853 3588.719177 48 73 150
1601.534271 633.948708 3619.087219 29 33 33
1611.782074 -864.867306 3668.431473 140 156 173
1600.126266 652.110338 3604.333496 58 67 110
1618.591309 -883.282566 3677.149582 59 64 101
1616.362762 -901.104927 3667.746735 48 43 52
1614.162254 -310.180163 3648.306656 24 27 19
1620.181847 631.199026 3628.889465 180 181 173
1253.756714 707.408476 2444.785500 87 108 124
1634.025574 -844.378471 3666.209793 171 179 181
1636.302757 696.167994 3615.575790 72 71 75
1665.333557 -161.826921 3717.350388 5 12 62
1641.550446 746.588278 3619.969940 113 115 120
1643.489265 -901.292515 3646.911621 159 162 165
1654.997253 744.217253 3658.247375 115 117 122
1285.579205 714.702082 2506.866646 76 98 116
1661.820030 11.176338 3657.910156 7 22 70
1661.344147 -4.152784 3653.271484 0 13 112
1670.105362 -850.945950 3665.877151 162 166 166
1674.764252 -818.909359 3666.559601 40 39 59
1284.189892 701.833487 2452.641106 85 105 125
1284.189892 701.833487 2452.641106 85 105 125
1673.183060 631.526613 3611.455917 22 20 21
1694.922638 -224.690032 3685.335159 0 33 116
1694.748116 758.986807 3602.875519 133 136 144
1630.973244 63.010740 3416.854858 0 6 106
1714.084244 -256.946254 3663.556290 0 28 116
1726.156807 -300.200129 3667.680740 46 163 183
1700.404549 99.249750 3565.404129 15 19 24
1727.777290 -846.505833 3635.656357 40 31 38
1253.198719 695.646238 2218.505287 73 102 121
1746.585846 -293.114591 3638.104630 0 42 90
1761.285973 -163.912654 3659.554672 30 158 191
1781.891060 -303.168797 3665.507889 11 31 109
1762.775612 -491.223097 3613.745499 5 12 76
1792.631912 -202.017260 3659.070587 40 154 194
1872.858238 -183.243704 3610.467911 23 27 26
1878.223991 323.788047 3570.835876 35 29 22
1926.955605 -655.705881 3650.796509 29 32 19
1956.806946 -422.847176 3702.733612 0 25 46
1969.389343 661.725855 3685.517502 15 28 155
1965.194130 -424.859667 3682.703018 100 149 161
1965.194130 -424.859667 3682.703018 100 149 161
1961.180305 -424.068213 3671.822357 100 149 161
1961.180305 -424.068213 3671.822357 100 149 161
2076.771355 487.119865 3751.110840 39 46 110
2066.185760 327.787733 3719.913483 17 24 15
2065.456581 381.399226 3700.550079 133 141 216
2069.457245 222.179651 3700.304794 177 186 172
2068.597031 266.168475 3692.859650 32 24 22
2088.395309 305.081034 3699.039459 50 54 54
2108.809853 251.272178 3744.239426 35 29 22
2098.000526 268.946409 3718.127823 48 40 33
2103.795242 210.262895 3712.337112 42 49 40
2143.041420 -789.207888 3776.759720 67 63 56
2137.828636 244.984746 3742.514038 84 84 73
2136.885262 226.908588 3730.670166 35 31 17
2126.658630 257.549596 3706.082535 31 29 23
2136.125565 289.005208 3694.322968 30 28 22
2136.125565 289.005208 3694.322968 30 28 22
2149.675560 306.752563 3716.287994 93 93 82
2162.236214 278.249431 3740.073776 131 129 110
2135.778618 257.107091 3679.158020 131 129 110
2237.867165 -621.808338 3778.538895 67 76 107
2231.272888 -266.438866 3743.184280 124 112 117
2286.975670 -278.846288 3748.584747 19 24 45
2303.856659 -315.331197 3782.691956 125 140 154
2306.835938 -299.471450 3786.982727 80 88 108
2299.710846 375.665426 3758.464813 20 25 36
2324.886703 -271.689868 3783.468246 48 43 52
2324.886703 -271.689868 3783.468246 48 43 52
-84.292436 745.209360 3508.672333 154 163 172
-72.368640 525.940514 3470.354080 3 9 16
-65.402871 520.690393 3443.363571 3 9 16
-74.821162 397.649837 3497.483444 52 65 78
-76.330316 662.959051 3511.631775 169 172 180
-74.479020 710.179281 3508.215714 152 155 163
-53.257889 758.399725 3497.489166 56 73 87
-57.266575 -581.836748 3553.973007 159 150 152
-51.581180 -9.650576 3539.781952 135 130 139
-49.914607 -950.688362 3536.209488 133 124 125
-36.640960 751.825571 3509.189224 88 90 100
-42.253229 -620.522308 3558.032227 101 87 97
-36.035419 -633.546019 3528.977585 60 49 56
-35.125771 -632.710266 3525.220490 60 49 56
-36.599368 370.028210 3556.344604 157 146 160
-33.882016 -930.429745 3553.510666 126 117 119
-33.751109 331.237602 3565.469360 53 40 54
-25.901377 -295.636535 3520.697403 64 55 62
-30.467367 -646.773672 3551.571274 131 137 156
-11.077610 18.907516 3495.106506 30 26 37
-22.597490 -297.999477 3564.694977 131 113 128
-20.168403 -859.697056 3552.642441 36 39 47
-20.168403 -859.697056 3552.642441 36 39 47
-19.972953 -651.153946 3552.885437 162 167 183
-14.410239 309.241033 3535.696411 152 150 156
-15.098402 -630.843687 3552.478409 155 164 182
-9.812228 331.525731 3542.258072 143 141 147
-2.913641 377.412438 3535.612869 38 33 49
-0.917046 -313.250446 3548.549271 41 108 162
-3.605379 -648.837137 3567.036819 195 193 193
6.669410 632.025099 3520.235443 83 171 189
-0.034370 -673.046207 3550.923920 94 85 92
14.361736 704.372215 3492.602921 82 93 145
6.374445 -351.065516 3542.361450 141 164 200
21.276760 650.143623 3509.485245 4 35 56
12.021241 -599.199390 3560.478592 70 59 60
10.579062 -399.690247 3575.339127 36 32 45
19.475414 -844.892502 3549.900055 24 46 46
22.295946 250.926566 3552.394485 96 96 96
21.469483 -365.875721 3560.609436 172 157 176
24.222600 65.854484 3557.685852 70 73 89
23.614612 -669.465828 3557.835007 189 193 193
29.620034 343.074489 3546.531296 7 17 37
29.620034 343.074489 3546.531296 7 17 37
28.438523 265.970278 3557.450104 1 9 11
29.205820 -878.697395 3556.401443 66 161 178
29.178002 -251.085520 3562.945175 84 76 74
34.262198 -793.242216 3560.374069 78 76 76
34.401879 -312.423062 3577.215195 147 147 185
50.722313 -662.521267 3574.536896 33 26 27
50.722313 -662.521267 3574.536896 33 26 27
65.930212 -637.740374 3576.383209 82 83 106
75.424188 492.604589 3543.915939 159 163 168
75.424188 492.604589 3543.915939 159 163 168
75.947040 523.708296 3542.839432 159 159 160
69.816554 -853.929615 3573.556900 143 134 246
69.816554 -853.929615 3573.556900 143 134 246
81.755346 698.919344 3509.215546 96 106 155
80.440706 -357.467389 3527.890015 12 9 13
79.431742 516.227245 3547.398758 15 13 14
88.541889 505.831432 3540.861130 32 30 31
88.184381 -351.267600 3548.149109 20 16 17
85.646981 -640.758038 3574.103546 164 167 170
85.646981 -640.758038 3574.103546 164 167 170
84.251612 -864.662361 3601.731491 54 53 148
99.663574 522.956133 3539.684677 174 176 170
106.122494 512.641048 3551.144791 34 30 31
116.709280 -801.396561 3553.011322 24 28 28
129.190242 -905.318260 3554.212570 120 111 118
145.154953 541.579533 3547.826767 160 165 168
144.472575 513.470507 3554.427719 135 142 146
163.415563 320.661378 3566.343689 39 37 93
168.652356 484.530449 3560.868454 162 161 165
168.652356 484.530449 3560.868454 162 161 165
169.411135 424.152613 3563.744354 20 14 20
179.849470 484.121370 3558.279800 177 175 175
179.849470 484.121370 3558.279800 177 175 175
181.821668 510.903502 3557.386780 35 30 34
184.355950 445.302534 3571.971130 168 170 175
187.752867 472.785378 3567.734146 36 32 32
191.463149 534.788418 3559.598923 169 169 170
191.463149 534.788418 3559.598923 169 169 170
191.894221 324.133158 3581.582260 183 185 216
193.892825 406.670952 3570.532990 26 21 25
106.967890 367.318034 4316.927338 27 18 19
201.526594 490.554619 3566.804123 179 172 181
199.169612 301.077724 3589.905930 57 45 146
205.403090 327.234602 3597.632599 136 128 141
212.549782 473.211670 3572.577667 35 31 32
211.542320 309.227943 3589.045715 172 164 238
211.542320 309.227943 3589.045715 172 164 238
214.692998 508.809280 3566.326141 38 30 35
214.692998 508.809280 3566.326141 38 30 35
215.896416 404.906511 3567.886734 171 174 182
218.754673 293.883276 3586.713409 55 51 148
229.009509 666.153860 3537.558746 137 140 143
228.238010 630.734539 3545.697403 145 134 135
226.645398 -902.256584 3581.602859 126 120 126
228.185081 274.285126 3592.397690 182 189 193
228.185081 274.285126 3592.397690 182 189 193
230.486035 515.245008 3579.535675 37 32 36
230.486035 515.245008 3579.535675 37 32 36
234.386659 300.120616 3591.120529 180 185 201
234.386659 300.120616 3591.120529 180 185 201
237.839293 435.837984 3574.885559 162 158 171
240.077162 471.955824 3570.788193 36 31 35
238.598251 295.480037 3608.899307 57 52 104
250.436473 687.725925 3538.438416 25 33 35
252.332377 612.330389 3558.094025 200 191 193
253.366160 646.577406 3554.701233 197 192 196
252.837873 430.175257 3579.437256 38 32 38
258.173466 687.416315 3551.396942 0 14 28
256.076288 455.379868 3575.086212 179 176 185
260.097766 455.166197 3586.991882 76 79 87
260.097766 455.166197 3586.991882 76 79 87
254.094267 -897.101879 3632.165146 75 71 71
262.386632 496.179581 3576.402664 170 167 171
367.309928 329.580832 2558.448410 169 169 170
268.167400 515.369081 3576.947784 36 29 31
272.698259 472.479486 3577.687836 40 34 40
272.587156 -660.271788 3575.135803 29 28 20
275.984550 642.854834 3579.262924 196 192 192
272.918129 255.630469 3603.672028 184 186 198
273.804235 268.843985 3603.283691 109 110 157
280.468321 426.528883 3552.134705 36 31 35
276.251531 -933.875465 3601.477814 87 80 81
283.263278 445.078850 3580.286026 154 147 156
281.737828 -835.902882 3597.810745 16 9 18
289.823699 453.652525 3585.226440 182 181 185
288.042998 248.968053 3607.501221 61 54 86
292.341828 486.542416 3578.569794 175 179 179
292.556167 411.345959 3587.034988 64 68 67
292.556167 411.345959 3587.034988 64 68 67
292.456150 399.010015 3594.440842 11 10 7
294.740653 422.978592 3576.445007 34 27 36
291.487646 -873.321629 3607.596970 166 165 193
300.404048 651.957607 3559.445190 37 33 34
297.842169 415.976429 3585.693359 167 175 177
297.998118 -906.355667 3601.623535 93 87 85
303.562188 452.336073 3586.787796 27 22 26
302.774501 -856.200314 3608.714294 68 50 92
309.360600 -890.250206 3604.048538 191 184 193
314.989543 -895.480537 3592.763901 91 82 83
314.989543 -895.480537 3592.763901 91 82 83
311.169744 -880.783081 3640.399551 107 103 125
323.161101 448.371124 3593.591309 163 164 156
324.385357 283.546209 3580.628967 135 142 158
325.063968 528.469181 3583.723068 176 171 175
328.062272 678.240919 3571.210098 193 196 199
326.598334 347.103262 3599.081802 164 171 182
326.598334 347.103262 3599.081802 164 171 182
329.276824 495.717478 3582.300949 173 170 179
336.469197 401.175880 3598.634338 182 175 176
337.099600 244.569492 3603.515625 153 151 157
344.417095 256.518555 3606.936264 54 44 49
343.127346 -864.437580 3606.475067 173 173 174
347.612190 538.341522 3583.916855 18 17 21
346.570396 517.576456 3599.833679 40 31 38
347.146010 62.294006 3618.238449 173 185 200
347.146010 62.294006 3618.238449 173 185 200
347.146010 62.294006 3618.238449 173 185 200
350.663614 -344.751716 3644.021225 42 53 125
357.331324 -859.855461 3612.817764 188 187 191
363.159943 537.906218 3585.847855 161 165 164
361.552024 328.642106 3603.920746 182 187 190
367.562652 382.866454 3591.589355 39 30 31
368.958473 526.995802 3580.947876 173 173 174
370.742106 675.562716 3560.472870 59 64 60
368.333030 362.463641 3602.333069 46 36 41
368.333030 362.463641 3602.333069 46 36 41
366.838193 -318.037963 3630.852127 21 27 27
429.871511 359.241199 2815.204239 176 171 175
371.991611 40.884846 3626.940918 98 97 89
371.991611 40.884846 3626.940918 98 97 89
374.511313 417.890120 3604.487228 176 168 179
386.939049 407.539940 3600.847244 172 169 166
387.180185 417.359209 3599.633408 181 178 187
390.122294 448.448563 3597.218704 175 175 176
389.377499 306.159019 3611.129761 53 46 117
389.377499 306.159019 3611.129761 53 46 117
393.661547 532.510948 3582.310104 57 63 63
394.058704 430.650234 3596.285629 43 33 43
394.058704 430.650234 3596.285629 43 33 43
391.878653 110.699010 3620.783615 201 194 171
391.878653 110.699010 3620.783615 201 194 171
392.488265 297.506094 3624.565506 41 34 100
394.021082 278.313804 3600.937271 83 75 80
398.106742 327.340460 3619.943237 82 85 93
400.216579 -8.262049 3626.725006 88 117 148
400.216579 -8.262049 3626.725006 88 117 148
404.212999 271.082544 3621.705627 56 51 125
409.279013 239.691710 3601.877213 65 57 131
408.681965 345.350838 3628.989410 42 33 104
412.687016 283.328533 3620.529556 160 164 169
414.349174 -309.915090 3642.483521 0 117 176
419.861555 310.145545 3607.043076 44 38 86
417.742395 238.680601 3647.323227 59 49 79
419.576263 1.163385 3624.573898 0 52 83
419.180202 -65.402478 3632.815170 21 25 24
426.835203 366.036439 3619.932556 49 44 48
435.452747 416.636276 3604.302979 170 172 177
435.938597 349.888301 3611.000061 185 184 204
435.938597 349.888301 3611.000061 185 184 204
439.611721 440.428162 3604.009628 178 172 178
444.884014 451.017523 3604.112625 65 59 65
445.948887 495.134544 3596.379852 33 31 37
445.972395 449.359083 3604.009247 46 42 48
452.434492 409.020805 3610.485458 180 171 172
454.649353 390.339255 3580.351257 46 34 30
457.011223 341.630316 3616.499710 41 38 160
461.580896 -306.318808 3631.674576 123 182 231
462.510777 -305.583048 3622.159958 123 182 231
465.178442 408.337545 3606.962204 180 173 174
466.111898 533.552599 3593.575668 74 78 77
466.317749 533.270264 3595.551300 68 72 71
467.008591 496.530533 3601.266098 94 93 97
476.952267 349.047494 3617.267990 169 175 189
476.952267 349.047494 3617.267990 169 175 189
479.103565 443.071175 3608.488846 43 47 47
484.880877 277.013278 3623.148346 55 47 102
487.503386 441.095304 3609.223938 167 167 167
485.738993 50.019580 3644.922256 73 88 136
486.833477 0.082533 3614.366531 83 64 95
547.602367 172.950733 2026.337624 28 23 96
494.997501 450.150919 3607.549286 27 21 27
497.441673 263.470387 3626.224136 174 180 187
502.639294 399.939179 3611.630249 169 167 167
501.525688 333.290315 3657.887268 149 153 172
503.973627 494.213915 3601.000214 30 21 23
505.491304 441.663599 3614.656830 181 176 185
505.491304 441.663599 3614.656830 181 176 185
503.846502 -202.665472 3636.546707 20 25 34
509.139824 429.173899 3604.294205 32 19 31
515.005732 417.135525 3608.602142 183 182 186
517.935038 271.171021 3624.871826 25 18 137
522.818041 427.312994 3602.344131 50 34 42
522.818041 427.312994 3602.344131 50 34 42
522.618389 409.011507 3614.966202 21 20 17
521.228218 -421.183014 3649.980545 0 22 49
521.972895 -463.796663 3652.384949 98 140 173
526.242685 382.095981 3604.195023 33 29 29
533.011913 9.907404 3638.677216 203 185 219
541.407442 255.614352 3633.652496 34 24 29
541.407442 255.614352 3633.652496 34 24 29
558.507156 -174.545717 3649.403381 49 92 150
565.348244 -257.066727 3682.624435 0 90 173
565.889072 -256.303668 3674.603271 0 90 173
565.889072 -256.303668 3674.603271 0 90 173
568.677902 449.524689 3613.964844 174 172 173
570.848322 487.153816 3612.390900 38 31 33
554.859257 -612.529850 4533.526993 0 6 26
584.563017 419.878960 3623.057938 160 165 168
585.217237 -151.896071 3666.404724 33 49 120
589.971304 -77.541584 3630.410385 50 60 109
589.971304 -77.541584 3630.410385 50 60 109
591.966963 -178.739560 3644.544983 49 164 215
594.401407 494.188070 3610.295486 91 89 90
595.056152 472.272253 3629.719543 30 16 26
596.191692 417.615652 3621.023178 24 20 21
594.132233 -439.271164 3665.267181 0 154 191
596.917057 -364.718652 3653.379822 39 166 210
599.624586 487.526321 3615.792465 178 176 182
601.050520 479.280472 3613.645935 150 141 148
602.127647 322.856593 3633.322525 183 181 205
602.127647 322.856593 3633.322525 183 181 205
602.532673 306.694317 3654.563141 118 110 170
604.134512 -85.453761 3673.896408 52 62 116
603.148842 -512.140465 3694.780350 0 6 26
605.608797 274.622560 3629.876709 110 103 104
616.569519 292.561865 3646.089172 65 59 65
619.904232 419.457293 3617.086411 175 180 183
618.611479 -266.439223 3674.085236 22 28 42
621.742773 455.430746 3620.700455 122 121 113
621.742773 455.430746 3620.700455 122 121 113
624.088621 494.941568 3611.877823 133 134 131
624.997568 -212.402606 3673.377228 0 12 48
628.723192 -521.847343 3687.362671 0 4 29
630.753946 -314.814901 3658.885574 26 155 192
635.527039 337.156606 3632.482529 42 40 105
637.506771 -477.478790 3662.883377 7 62 157
638.529301 -168.434238 3647.437668 20 23 39
645.025206 -480.430984 3654.041672 0 18 114
645.663214 -514.542389 3666.241837 6 8 34
649.674129 299.559617 3669.445038 25 16 17
655.469131 541.445208 3617.152405 177 170 171
657.928562 -182.721746 3661.068344 29 48 117
660.135221 521.003914 3609.215164 15 11 12
662.368822 535.100937 3613.735580 90 87 84
662.368822 535.100937 3613.735580 90 87 84
665.074778 482.153320 3624.489594 162 159 163
668.331575 520.256853 3616.233444 157 153 154
679.234314 -63.893080 3660.889816 0 39 89
680.867910 -85.890198 3637.697983 0 30 87
680.867910 -85.890198 3637.697983 0 30 87
683.079433 518.201876 3624.552917 50 39 41
697.407579 -39.035219 3659.541702 68 169 195
700.478411 516.355133 3621.171570 41 36 40
702.667046 -76.798165 3656.178665 27 50 134
709.382582 -5.026879 3649.869919 28 51 140
713.375807 -265.909648 3688.982010 0 95 166
713.516712 -265.705895 3683.869553 0 95 166
716.498709 497.566557 3625.343323 165 161 161
723.717070 536.740780 3617.776871 28 30 35
745.747614 27.511942 3659.893417 1 160 190
768.092871 465.517473 3631.745911 214 193 168
780.280590 -46.643138 3711.736679 24 47 150
782.822037 378.127956 3643.977737 30 17 11
783.011675 -913.469601 3646.472168 39 40 68
792.067480 353.635979 3643.020630 36 22 10
798.406839 -301.155472 3724.724960 3 5 15
805.326271 -884.600353 3663.486862 133 153 185
815.298939 -313.956523 3684.242630 27 28 25
823.139381 -309.606028 3677.780533 8 24 36
824.109745 -873.724937 3649.269485 138 147 172
849.047756 257.342601 3666.584778 47 50 37
864.499187 770.470810 3614.953232 64 66 78
864.499187 770.470810 3614.953232 64 66 78
866.157341 405.034399 3638.905334 157 141 115
871.696186 -321.252704 3687.662125 25 159 210
887.056732 776.992559 3645.007706 74 76 81
890.393257 -365.258312 3685.813141 0 43 127
892.189121 -573.162556 3687.403107 0 17 50
899.737644 -280.403805 3697.551727 0 33 110
900.521088 -296.206307 3688.166046 121 177 201
900.934792 -506.782436 3690.285110 23 165 202
910.023594 369.556236 3651.504517 56 42 30
911.918926 -482.674360 3675.296021 0 38 111
914.687729 -302.383161 3686.588287 0 15 42
921.408653 -497.723246 3691.686249 29 167 214
903.810501 -573.527145 3468.228912 6 22 92
955.226421 465.860415 3649.004364 138 163 167
955.239296 782.547474 3603.887177 142 158 170
1006.486320 -463.086367 3705.801773 74 175 209
1016.303539 315.212369 3674.927521 0 22 80
1029.493523 146.178079 3708.022690 22 18 29
1027.201653 -92.433470 3692.980194 24 27 35
1031.521606 -365.129375 3687.110519 0 93 181
1037.937641 217.975926 3691.540527 36 30 28
1040.488720 685.849953 3627.024460 183 177 170
1040.488720 685.849953 3627.024460 183 177 170
1044.791222 316.641855 3665.872192 0 161 195
1057.417393 -117.592967 3678.536987 87 166 189
1057.417393 -117.592967 3678.536987 87 166 189
1065.636444 -275.836754 3742.840958 8 15 92
1054.248333 30.884987 3632.746124 0 63 162
1067.417908 8.572330 3686.592865 0 160 194
1076.628399 -105.472267 3700.623703 20 162 190
1078.239155 105.324280 3702.973175 22 24 34
1086.650467 134.975135 3694.312286 140 132 155
1088.350773 -344.716263 3709.471512 18 22 75
1109.536076 -45.334765 3739.978790 0 27 92
1109.562111 -45.097190 3706.352997 0 29 83
1110.191345 292.568517 3666.949463 10 160 191
1107.833385 369.495702 3644.200897 140 124 98
1113.821793 -328.149104 3700.709534 0 13 42
1115.598488 -866.733170 3673.012161 153 152 172
1127.439594 48.978654 3693.547058 0 6 79
1130.434227 364.851403 3674.042511 66 171 205
1131.143475 -864.375591 3683.351898 161 164 180
1142.548561 351.759887 3670.154953 0 160 194
1143.016338 -548.331976 3682.630539 31 32 47
1133.755589 -809.129143 3598.561096 42 29 36
1146.786213 -844.565010 3684.580994 64 48 56
1150.313473 -873.149586 3698.598862 49 42 51
1154.347515 365.187025 3671.481323 29 168 199
1153.886986 365.140414 3666.605377 29 168 199
1174.097824 -586.528873 3753.464127 0 3 18
1169.783688 -7.497995 3704.859924 0 28 93
1169.270706 -424.833918 3688.230896 0 98 175
1171.056747 478.526640 3648.556900 60 54 26
1185.822296 -504.596996 3743.940353 0 82 167
1193.599033 -472.346926 3715.620804 86 179 215
1195.722389 -579.248905 3719.494629 27 150 185
1195.487309 53.224283 3699.922943 10 124 193
1197.091675 -487.921476 3717.039490 52 166 214
1195.213318 -340.723395 3697.588730 0 143 186
1208.648396 283.494663 3691.118622 85 169 193
1218.090916 288.466311 3669.524384 13 160 187
1232.713413 -19.592947 3707.656479 33 82 170
1233.111286 -62.807071 3690.714645 52 161 217
1238.969326 -118.263924 3704.399109 38 155 196
1238.969326 -118.263924 3704.399109 38 155 196
1250.315571 365.036964 3680.063248 59 164 191
1250.315571 365.036964 3680.063248 59 164 191
1247.307682 441.289949 3632.482910 79 45 13
1256.148243 45.239222 3692.383575 0 133 195
1259.181690 539.994049 3668.416595 50 48 79
1259.670353 -3.632808 3682.622147 20 135 215
1263.291073 -27.581355 3696.573257 0 74 185
1284.170818 -493.058205 3756.633759 28 26 26
1289.711666 -91.815150 3706.906509 5 165 201
1288.921165 16.161577 3686.499786 0 17 92
1290.594387 350.604272 3684.118652 0 35 93
1303.310776 -562.843704 3707.366180 72 150 210
1315.706730 -314.158893 3761.731339 8 137 186
1309.561825 -60.733706 3714.388275 0 16 100
1337.663460 180.066597 3735.309219 46 52 79
1343.334293 35.584658 3704.616547 42 171 201
1343.334293 35.584658 3704.616547 42 171 201
1356.434059 -96.821332 3770.484924 13 149 203
1342.093086 -539.957333 3687.146759 0 31 123
1361.501884 -528.568125 3709.967041 147 178 217
1368.961048 -14.796771 3733.258057 0 8 107
1364.990425 -483.479929 3718.790817 97 163 201
1371.437359 -366.133475 3724.261475 0 158 194
1378.046608 28.918922 3724.035263 0 23 68
1386.354923 -337.731647 3728.041458 0 33 95
1384.885979 128.797174 3704.011536 178 175 179
1389.156628 6.740483 3715.870285 14 27 53
1389.650249 -483.890724 3728.694916 66 171 214
1386.406898 -318.646669 3709.084320 131 181 199
1389.462852 -569.803858 3722.971725 160 189 201
1400.796700 -561.893511 3711.237717 0 22 49
1407.180595 -265.383530 3718.029022 22 27 36
1446.800518 -73.141146 3717.061234 49 92 150
1469.752884 -118.727672 3720.597458 35 69 167
1452.919292 725.344324 3620.994568 99 65 108
1495.836353 -347.043633 3716.166306 0 20 49
1500.609779 -56.349784 3716.691589 0 29 112
1500.609779 -56.349784 3716.691589 0 29 112
1504.445076 -347.528768 3717.827225 55 138 198
1507.092381 -325.476575 3721.777344 23 160 203
1530.399132 -123.541403 3780.031204 31 70 167
1536.323357 -134.827006 3765.143585 14 22 63
1525.395775 -420.285368 3716.914368 36 162 190
1528.547001 -377.552271 3712.909317 0 92 163
1528.547001 -377.552271 3712.909317 0 92 163
1534.091377 -122.225714 3710.977554 75 99 173
1545.053387 -527.976036 3742.050171 14 33 108
1508.970356 -353.647900 3585.336685 18 152 203
1508.970356 -353.647900 3585.336685 18 152 203
1547.037220 -89.240140 3719.485855 78 166 224
1548.066139 -523.424578 3723.003387 0 24 96
1554.869938 -400.447702 3715.502930 0 86 182
1557.194614 -139.325762 3719.330215 97 117 176
1562.812614 -486.691618 3730.559158 0 90 175
1566.382790 -448.271465 3717.959595 1 160 190
1595.500755 -857.042885 3743.988800 29 29 23
1592.170715 -489.766645 3705.896378 5 84 175
1592.170715 -489.766645 3705.896378 5 84 175
1561.511803 -824.839592 3582.789612 29 29 23
1600.360107 37.449113 3706.559753 0 22 85
1608.612823 -10.334937 3710.655212 16 25 34
1605.549812 56.317770 3697.708130 0 14 67
1615.435791 -248.828006 3706.079483 131 182 195
1614.697456 -247.010541 3698.128891 112 171 188
1615.607452 -102.325153 3690.755081 10 25 58
1626.795578 18.015152 3719.950104 58 108 160
1634.848595 8.407383 3719.950104 90 138 186
1632.463455 -314.459848 3715.021133 26 28 22
1636.865997 -119.197989 3708.596802 3 16 81
1636.770821 -440.662527 3711.741257 21 26 29
1649.936867 -255.213857 3725.577164 2 23 39
1648.130417 -254.206872 3717.649078 2 23 39
1647.155190 -902.062416 3701.128769 64 64 65
1668.038177 -515.209484 3724.229431 0 15 49
1660.318375 639.109039 3647.195816 69 69 70
1699.481010 -194.651926 3766.147614 0 15 87
1681.945992 -858.802414 3706.962204 172 172 172
1697.464180 -197.623610 3737.193298 42 119 191
1679.394722 634.367132 3632.827759 20 18 18
1685.428429 687.201452 3642.330170 166 173 177
1700.798225 -225.636816 3705.342484 0 34 116
1705.385399 -186.256230 3711.427689 73 159 210
1705.385399 -186.256230 3711.427689 73 159 210
1717.867088 -71.822202 3709.513092 12 11 78
1728.195190 -37.327462 3692.687607 93 161 205
1742.689133 -105.749953 3715.424728 179 190 208
1730.992889 707.836914 3650.044250 48 42 48
1751.021385 -266.401148 3724.091339 0 34 76
1739.685822 -887.669849 3689.208984 76 66 71
1751.696777 -57.219708 3696.363831 87 117 200
1755.946541 -216.863108 3709.394455 22 29 38
1760.007858 -64.497054 3706.318665 0 0 77
1766.637039 -157.175982 3707.173157 91 166 196
1774.052811 -298.957610 3726.235962 0 39 104
1775.170898 -165.491271 3703.832245 31 156 191
1774.030113 -506.226206 3689.374924 0 4 59
1794.017220 9.724420 3704.064178 15 21 28
1794.211578 -305.562687 3704.151535 15 33 106
1809.164619 -498.240757 3748.990250 63 89 145
1809.164619 -498.240757 3748.990250 63 89 145
1797.597694 -241.860843 3703.213882 0 37 81
1803.457069 -210.948110 3703.974915 70 143 193
1810.204697 -285.938263 3700.263596 59 126 173
1818.056488 71.678466 3696.929550 0 24 77
1818.056488 71.678466 3696.929550 0 24 77
1664.480400 55.994254 3222.612762 64 90 112
1878.529549 -109.508157 3707.179260 61 149 195
1885.855484 -425.414038 3712.181091 161 188 200
1896.334076 -341.470385 3739.621353 21 51 108
1887.322807 -366.745901 3709.020996 23 66 117
1914.003754 706.387663 3733.096313 73 75 69
1911.014366 334.187531 3686.019516 23 16 17
1910.457611 736.950684 3659.500885 128 126 127
1921.120644 7.584374 3691.828918 49 64 124
1928.102684 718.798828 3636.644363 12 15 23
1964.564705 -424.952316 3724.089432 0 21 41
1966.975212 -412.126350 3720.721436 94 165 168
1966.975212 -412.126350 3720.721436 94 165 168
1981.291962 -429.231834 3726.449203 108 155 174
1975.962448 -410.491848 3705.740738 0 18 26
1962.433243 306.296372 3656.555176 19 21 15
2024.686241 220.341706 3691.884232 15 16 8
2035.612679 294.800782 3717.327118 152 154 143
2048.278809 536.672211 3680.585861 58 61 89
2050.471115 231.146836 3682.245255 39 31 29
2046.563148 230.218339 3670.742035 39 31 29
2063.137054 -831.471539 3701.911163 23 25 19
2076.774216 267.399716 3713.612747 19 21 26
2083.212662 274.615312 3705.776215 167 167 167
2090.754890 211.368179 3718.137741 15 11 4
